-7.539088726043701, -7.416405200958252, 0.5542378425598145
-4.236502647399902, -4.167562484741211, -1.1551576852798462
-7.5475687980651855, -7.42215633392334, 0.9261168837547302
-6.998403549194336, -6.8797173500061035, -1.5543330907821655
-7.559318542480469, -7.42852258682251, 1.3013209104537964
-7.021076679229736, -6.897185325622559, -1.2084565162658691
-7.584098815917969, -7.447668075561523, 1.683547854423523
-4.268254280090332, -4.190011978149414, -0.523283064365387
-7.488410472869873, -7.351138591766357, 2.039748191833496
-7.047784328460693, -6.916174411773682, -0.5174980163574219
-7.320133686065674, -7.18092679977417, 2.367384910583496
-7.518534183502197, -7.372983932495117, -0.18380874395370483
-4.846349239349365, -4.750870704650879, 1.8184627294540405
-7.5401153564453125, -7.370950222015381, 0.18405307829380035
-7.547787189483643, -7.373295783996582, 0.5529817938804626
-4.240510940551758, -4.141034126281738, -1.1521047353744507
-7.557613372802734, -7.377742290496826, 0.9240251183509827
-7.012263298034668, -6.842981338500977, -1.5518300533294678
-7.558209419250488, -7.3757476806640625, 1.2966898679733276
-7.0308990478515625, -6.8587751388549805, -1.2060191631317139
-7.600149154663086, -7.411497116088867, 1.681357741355896
-4.297121047973633, -4.188994884490967, -0.5250262022018433
-7.491400718688965, -7.300349235534668, 2.0332605838775635
-7.050196647644043, -6.867998123168945, -0.515823245048523
-7.261239051818848, -7.071117401123047, 2.3399410247802734
-7.534196853637695, -7.336928367614746, -0.18356440961360931
-4.861520290374756, -4.7325758934021, 1.8179450035095215
-7.545557022094727, -7.32237434387207, 0.18352951109409332
-7.543214797973633, -7.3149943351745605, 0.5506789684295654
-4.249302387237549, -4.120739936828613, -1.150578260421753
-7.571876525878906, -7.340221881866455, 0.9226306676864624
-7.016246795654297, -6.799216270446777, -1.5474498271942139
-7.566658020019531, -7.33004093170166, 1.2935212850570679
-7.0246195793151855, -6.802576541900635, -1.2006568908691406
-7.598875999450684, -7.356112480163574, 1.6751004457473755
-7.038749694824219, -6.813880920410156, -0.8570895791053772
-7.499909400939941, -7.257771968841553, 2.028681516647339
-7.056901931762695, -6.8266825675964355, -0.5145671963691711
-7.238247871398926, -6.999668121337891, 2.3246443271636963
-7.53372049331665, -7.282857418060303, -0.18290121853351593
-4.885778427124023, -4.721438884735107, 1.820533275604248
-7.553790092468262, -7.279341220855713, 0.18311065435409546
-7.5500030517578125, -7.2706074714660645, 0.549318253993988
-4.241035461425781, -4.084091663360596, -1.144472360610962
-7.571615695953369, -7.288873195648193, 0.9194930195808411
-7.02285623550415, -6.758248329162598, -1.5436954498291016
-7.569308757781982, -7.281564235687256, 1.2896214723587036
-7.034014701843262, -6.764256000518799, -1.1982195377349854
-7.591753005981445, -7.298058032989502, 1.6679044961929321
-7.0380730628967285, -6.7657976150512695, -0.8541262149810791
-7.505379676818848, -7.212502956390381, 2.023338556289673
-4.8424072265625, -4.651820182800293, -0.35190701484680176
-7.275288105010986, -6.986507415771484, 2.328693389892578
-7.533130168914795, -7.231588363647461, -0.18227292597293854
-4.895260334014893, -4.697667598724365, 1.8179450035095215
-7.551703453063965, -7.226660251617432, 0.18244746327400208
-7.550980567932129, -7.223440647125244, 0.5476434826850891
-4.260941982269287, -4.074690341949463, -1.1459989547729492
-7.56676721572876, -7.233489036560059, 0.91583251953125
-7.014987468719482, -6.703666687011719, -1.5368123054504395
-7.577455043792725, -7.238643169403076, 1.2866966724395752
-7.031739711761475, -6.714984893798828, -1.1938321590423584
-7.5973405838012695, -7.255107402801514, 1.663837194442749
-7.0587663650512695, -6.7384352684021, -0.8537776470184326
-7.51062536239624, -7.1672844886779785, 2.017996072769165
-4.868730545043945, -4.644540309906006, -0.35263970494270325
-7.336298942565918, -6.996035575866699, 2.340390920639038
-7.533915996551514, -7.1844868659973145, -0.18171446025371552
-4.9178032875061035, -4.68807315826416, 1.820533275604248
-7.5437421798706055, -7.171267032623291, 0.18167956173419952
-7.558772087097168, -7.180530548095703, 0.5463874340057373
-7.567405700683594, -7.183712959289551, 0.9128692746162415
-7.014255046844482, -6.658608436584473, -1.531806468963623
-7.581259250640869, -7.194344997406006, 1.283284306526184
-7.048208713531494, -6.686164855957031, -1.1928571462631226
-7.601120948791504, -7.208152770996094, 1.6591441631317139
-7.064892768859863, -6.697305679321289, -0.8516858816146851
-7.504431247711182, -7.113974571228027, 2.009982109069824
-4.898603439331055, -4.6421074867248535, -0.3536864221096039
-7.386338233947754, -6.997132301330566, 2.3489389419555664
-7.541524887084961, -7.1416449546813965, -0.18129560351371765
-4.9551801681518555, -4.690800189971924, 1.828297734260559
-7.551278114318848, -7.128417491912842, 0.18126069009304047
-4.192393779754639, -3.95624041557312, -1.330810546875
-7.560544967651367, -7.132175445556641, 0.5447127223014832
-7.570893287658691, -7.139441013336182, 0.9104288220405579
-6.823286056518555, -6.432186603546143, -1.4851889610290527
-7.571650981903076, -7.135164737701416, 1.2774345874786377
-7.045495986938477, -6.637020111083984, -1.1884700059890747
-7.613292694091797, -7.169386863708496, 1.6563283205032349
-7.069658279418945, -6.657449722290039, -0.8495941162109375
-7.51063346862793, -7.070243835449219, 2.005021095275879
-4.933686256408691, -4.642773151397705, -0.35504716634750366
-7.417815208435059, -6.977982521057129, 2.3511886596679688
-7.547468185424805, -7.097468852996826, -0.1808418333530426
-4.991231918334961, -4.691998481750488, 1.8355448246002197
-7.5571489334106445, -7.084238529205322, 0.1808069348335266
-7.5577006340026855, -7.079797744750977, 0.5427239537239075
-7.576862335205078, -7.095266342163086, 0.9081627726554871
-6.799548149108887, -6.3651323318481445, -1.4751771688461304
-7.58201789855957, -7.095128536224365, 1.2749972343444824
-7.051226615905762, -6.59611177444458, -1.1855450868606567
-7.615185737609863, -7.121181964874268, 1.6513224840164185
-7.072479248046875, -6.613681316375732, -0.8471537828445435
-7.523793697357178, -7.033257484436035, 2.0019681453704834
-4.970293045043945, -4.644612789154053, -0.35651257634162903
-7.449246883392334, -6.958700180053711, 2.353438138961792
-7.547351360321045, -7.047878265380859, -0.1802484542131424
-5.03441047668457, -4.699594020843506, 1.8453798294067383
-7.565732002258301, -7.042825698852539, 0.18042297661304474
-7.56212854385376, -7.037008762359619, 0.5413631796836853
-7.582616806030273, -7.051136493682861, 0.9058967232704163
-7.590743064880371, -7.0537543296813965, 1.2723160982131958
-7.059662818908691, -6.557948589324951, -1.183107614517212
-7.60113000869751, -7.060935020446777, 1.6431878805160522
-7.069242477416992, -6.564549446105957, -0.8440161347389221
-7.528155326843262, -6.988253116607666, 1.9966254234313965
-5.020147323608398, -4.658482551574707, -0.35892000794410706
-7.482064247131348, -6.940607070922852, 2.35613751411438
-7.547225475311279, -7.001052379608154, -0.17968997359275818
-5.0499677658081055, -4.682872772216797, 1.8453798294067383
-7.5684895515441895, -6.998692989349365, 0.1799343079328537
-7.571977615356445, -6.997013092041016, 0.5403164625167847
-7.579372406005859, -6.99894380569458, 0.9025849103927612
-6.754190444946289, -6.236954212188721, -1.4560922384262085
-7.598047256469727, -7.013731956481934, 1.2696348428726196
-7.066782474517822, -6.5210394859313965, -1.1806703805923462
-7.605403423309326, -7.015607833862305, 1.6388076543807983
-7.062819480895996, -6.512819766998291, -0.8405299186706543
-7.523865222930908, -6.937962532043457, 1.9893747568130493
-7.092970371246338, -6.538332462310791, -0.5055654048919678
-7.500739574432373, -6.911795139312744, 2.354787826538086
-7.5539679527282715, -6.958406925201416, -0.17927111685276031
-5.070545673370361, -4.6691436767578125, 1.8469327688217163
-7.564890384674072, -6.946531295776367, 0.17927111685276031
-4.246542453765869, -3.898061513900757, -1.330810546875
-7.578694820404053, -6.954336643218994, 0.5390604138374329
-7.581984519958496, -6.954915523529053, 0.9001444578170776
-6.748257160186768, -6.1879730224609375, -1.4501476287841797
-7.599069118499756, -6.965707302093506, 1.265735149383545
-7.074866771697998, -6.482921123504639, -1.1782329082489014
-7.615279197692871, -6.975673198699951, 1.6356788873672485
-7.063810348510742, -6.470521926879883, -0.8380895853042603
-7.516183853149414, -6.882489204406738, 1.9809792041778564
-7.0951247215271, -6.494653224945068, -0.5041000247001648
-7.5521368980407715, -6.9105658531188965, 2.3633358478546143
-7.560505390167236, -6.915800094604492, -0.17885226011276245
-5.1024956703186035, -4.665755748748779, 1.8526268005371094
-7.5684051513671875, -6.901219367980957, 0.17878244817256927
-4.225557804107666, -3.8517088890075684, -1.3200129270553589
-7.576353073120117, -6.903624534606934, 0.5371763110160828
-7.59148645401001, -6.914989948272705, 0.8984013795852661
-4.911949634552002, -4.472667694091797, -1.0521783828735352
-7.591043472290039, -6.909740447998047, 1.2603728771209717
-4.924463748931885, -4.480916976928711, -0.8174996376037598
-7.627891540527344, -6.938416957855225, 1.6331759691238403
-7.09224796295166, -6.4511895179748535, -0.8387868404388428
-7.5198259353637695, -6.837718486785889, 1.97563636302948
-7.104450225830078, -6.457756042480469, -0.503157913684845
-7.61082649230957, -6.915616512298584, 2.374133586883545
-7.568317890167236, -6.874577045440674, -0.17846831679344177
-5.103018760681152, -4.633630752563477, 1.8469327688217163
-7.571695327758789, -6.855969429016113, 0.17829379439353943
-4.224528789520264, -3.823857545852661, -1.3155138492584229
-7.575227737426758, -6.8543548583984375, 0.5353968739509583
-7.593412399291992, -6.868402481079102, 0.8957867622375488
-4.921671390533447, -4.450194358825684, -1.050926923751831
-7.606280326843262, -6.875212669372559, 1.2589104175567627
-4.9400739669799805, -4.463701248168945, -0.8174996376037598
-7.633009433746338, -6.894533634185791, 1.6291086673736572
-7.154645919799805, -6.4624505043029785, -0.8434932827949524
-7.531991481781006, -6.800901889801025, 1.9725834131240845
-7.149186611175537, -6.4529924392700195, -0.5047280192375183
-6.047749996185303, -5.456896781921387, 1.8805910348892212
-7.5581159591674805, -6.817310810089111, -0.17766550183296204
-5.119161128997803, -4.615790843963623, 1.8469327688217163
-7.579223155975342, -6.814789772033691, 0.17790982127189636
-4.214663028717041, -3.7882440090179443, -1.3083155155181885
-7.575336456298828, -6.806514739990234, 0.5337221622467041
-7.593625545501709, -6.820552825927734, 0.892997682094574
-7.605117321014404, -6.826079845428467, 1.254766821861267
-4.940850257873535, -4.433172702789307, -0.8150622248649597
-7.623206615447998, -6.837510108947754, 1.6219125986099243
-7.215723514556885, -6.472024917602539, -0.848025381565094
-7.536681175231934, -6.757532596588135, 1.9676223993301392
-7.217774391174316, -6.469322204589844, -0.5079728364944458
-6.076920032501221, -5.444855213165283, 1.8837403059005737
-7.553563117980957, -6.765538692474365, -0.17700229585170746
-5.142439842224121, -4.604335784912109, 1.8495210409164429
-7.580591201782227, -6.768314838409424, 0.17738625407218933
-4.219136714935303, -3.765723943710327, -1.305616021156311
-7.582655429840088, -6.765402793884277, 0.5325707197189331
-7.590624809265137, -6.7701311111450195, 0.8898600935935974
-7.609633922576904, -6.782320976257324, 1.2515982389450073
-4.948884963989258, -4.409295082092285, -0.8138435482978821
-7.6293253898620605, -6.795094966888428, 1.6181583404541016
-7.257611274719238, -6.464025974273682, -0.8502914309501648
-7.539695739746094, -6.712906360626221, 1.9622797966003418
-7.273136615753174, -6.473299503326416, -0.5102756023406982
-6.114815711975098, -5.440450668334961, 1.8895890712738037
-7.560698509216309, -6.724512577056885, -0.17661836743354797
-5.14693021774292, -4.576087951660156, 1.8453798294067383
-7.581727027893066, -6.7219133377075195, 0.1768626868724823
-4.217671871185303, -3.7380475997924805, -1.3011170625686646
-7.591275691986084, -6.725648403167725, 0.5315240025520325
-7.593328475952148, -6.725101470947266, 0.8874197006225586
-4.919196605682373, -4.355200290679932, -1.040602207183838
-7.610964775085449, -6.735982894897461, 1.2479422092437744
-4.971679210662842, -4.398571014404297, -0.8150622248649597
-7.6293230056762695, -6.747482776641846, 1.6131523847579956
-7.315950393676758, -6.47033166885376, -0.8544749021530151
-7.538080215454102, -6.664438724517822, 1.9557924270629883
-7.321128845214844, -6.470358848571777, -0.5120550394058228
-6.1337690353393555, -5.419073104858398, 1.8895890712738037
-7.578130722045898, -6.692782402038574, -0.17647872865200043
-5.152735233306885, -4.5491437911987305, 1.8417563438415527
-7.581129550933838, -6.674264430999756, 0.17630420625209808
-4.254100799560547, -3.7439017295837402, -1.3083155155181885
-7.590714454650879, -6.6780009269714355, 0.5298492908477783
-7.600299835205078, -6.684081077575684, 0.8855023384094238
-4.974425315856934, -4.3732171058654785, -1.0490496158599854
-7.606101036071777, -6.684476375579834, 1.2433111667633057
-7.640955924987793, -6.71038293838501, 1.6106494665145874
-7.371425628662109, -6.473677635192871, -0.8583097457885742
-7.534739017486572, -6.614772319793701, 1.9489232301712036
-7.379698276519775, -6.476381301879883, -0.5145671963691711
-6.129209041595459, -5.377065658569336, 1.8823904991149902
-7.58641242980957, -6.653103828430176, -0.17612968385219574
-5.183108806610107, -4.54386568069458, 1.8469327688217163
-7.58932638168335, -6.634599685668945, 0.1759551614522934
-7.585400104522705, -6.626497745513916, 0.5278605222702026
-7.608578205108643, -6.644404888153076, 0.8837592005729675
-5.013469219207764, -4.376613140106201, -1.0540555715560913
-7.6144304275512695, -6.644832134246826, 1.2408736944198608
-5.065093040466309, -4.418562889099121, -0.8252992630004883
-7.643491744995117, -6.665491104125977, 1.6062692403793335
-7.436025619506836, -6.484570503234863, -0.8631904721260071
-7.545943737030029, -6.578110218048096, 1.945870280265808
-7.436892032623291, -6.4807610511779785, -0.5169746279716492
-6.1626362800598145, -5.368436813354492, 1.8868895769119263
-7.582444190979004, -6.602945804595947, -0.17550140619277954
-5.198938369750977, -4.525745391845703, 1.8469327688217163
-7.595826625823975, -6.593649387359619, 0.17557120323181152
-7.5858540534973145, -6.580348014831543, 0.5262904167175293
-7.607639789581299, -6.596922874450684, 0.8809702396392822
-5.037672996520996, -4.366847991943359, -1.0559327602386475
-7.619577407836914, -6.60261344909668, 1.2379488945007324
-5.068481922149658, -4.390459060668945, -0.8233493566513062
-7.639830589294434, -6.615495681762695, 1.600637674331665
-7.55401611328125, -6.538880348205566, 1.942054033279419
-7.497225761413574, -6.487435817718506, -0.5195914506912231
-6.229973793029785, -5.388965129852295, 1.9017363786697388
-7.581244468688965, -6.555509090423584, -0.17494292557239532
-5.2249369621276855, -4.516412258148193, 1.8505562543869019
-7.591531753540039, -6.543593883514404, 0.17494292557239532
-7.595156669616699, -6.542098522186279, 0.5253483653068542
-7.601935863494873, -6.545624256134033, 0.8776583075523376
-7.630538463592529, -6.565618991851807, 1.2359989881515503
-7.530853271484375, -6.477555751800537, -1.2196685075759888
-7.64490270614624, -6.573332786560059, 1.5968831777572632
-7.552972316741943, -6.491998195648193, 1.9359482526779175
-7.563757419586182, -6.498970985412598, -0.5226268768310547
-7.582168102264404, -6.5124897956848145, 2.3075480461120605
-7.575255393981934, -6.5042548179626465, -0.17427971959114075
-6.123154163360596, -5.255598068237305, 2.1621742248535156
-7.59002161026001, -6.496248245239258, 0.1743844449520111
-7.598215103149414, -6.4986701011657715, 0.5239876508712769
-7.606565952301025, -6.503511428833008, 0.8755666017532349
-7.632281303405762, -6.520890712738037, 1.2325866222381592
-7.651274681091309, -6.53249979019165, 1.5934417247772217
-7.553188800811768, -6.446474075317383, 1.930223822593689
-7.5470290184021, -6.436664581298828, 2.29000186920166
-7.578131675720215, -6.460906982421875, -0.1738259643316269
-6.129699230194092, -5.2241668701171875, 2.1580333709716797
-7.598937034606934, -6.458061218261719, 0.1740703135728836
-7.599542140960693, -6.454005241394043, 0.5225222110748291
-7.610993385314941, -6.4614481925964355, 0.8734748363494873
-7.624723434448242, -6.468523025512695, 1.227711796760559
-7.65595006942749, -6.490423202514648, 1.5896872282028198
-7.5531792640686035, -6.401029586791992, 1.9244996309280396
-6.4303154945373535, -5.445592880249023, 1.9453768730163574
-7.652530670166016, -6.478344917297363, -0.1750127375125885
-6.133152008056641, -5.1902594566345215, 2.1528570652008057
-7.664224147796631, -6.467606067657471, 0.1750476360321045
-7.641871929168701, -6.444178581237793, 0.5238829851150513
-7.6213154792785645, -6.4245686531066895, 0.8720803260803223
-7.626001834869385, -6.423964023590088, 1.2242995500564575
-7.6558918952941895, -6.444575309753418, 1.5849943161010742
-7.563459873199463, -6.364512920379639, 1.921446681022644
-3.8730146884918213, -3.257918357849121, -0.2652386426925659
-6.438845157623291, -5.414332866668701, 1.9422276020050049
-7.6720356941223145, -6.449019432067871, -0.17494292557239532
-6.140877723693848, -5.160120487213135, 2.14923357963562
-7.694418430328369, -6.447235584259033, 0.17522217333316803
-3.731797456741333, -3.125804901123047, -1.1238555908203125
-7.7010722160339355, -6.448237419128418, 0.5263950824737549
-3.740572929382324, -3.132044792175293, -0.948320746421814
-7.623833656311035, -6.381301403045654, 0.8698142766952515
-3.731440305709839, -3.122180938720703, -0.7705962657928467
-7.633150577545166, -6.384570121765137, 1.2218620777130127
-7.6495442390441895, -6.393742084503174, 1.5790497064590454
-7.569056510925293, -6.3242268562316895, 1.9172488451004028
-3.8843636512756348, -3.2443788051605225, -0.2652386426925659
-6.430779457092285, -5.369341850280762, 1.9341293573379517
-7.6806817054748535, -6.410668849945068, -0.17462877929210663
-6.141054153442383, -5.123800277709961, 2.143021821975708
-7.698428630828857, -6.40499210357666, 0.17480331659317017
-3.7441840171813965, -3.1140053272247314, -1.1243053674697876
-7.615417957305908, -6.329178333282471, 0.8663280606269836
-7.646228790283203, -6.350276947021484, 1.2203997373580933
-7.658545017242432, -6.358244895935059, 1.5765466690063477
-7.5548224449157715, -6.267683029174805, 1.9080899953842163
-6.438049793243408, -5.3392791748046875, 1.9309799671173096
-6.135697841644287, -5.0849175453186035, 2.1352570056915283
-7.789863109588623, -6.4351806640625, 0.5295352339744568
-7.613314628601074, -6.284867286682129, 0.8637134432792664
-7.6427435874938965, -6.30467414855957, 1.216499924659729
-7.664344310760498, -6.320249080657959, 1.5734180212020874
-7.5361738204956055, -6.210134506225586, 1.8981680870056152
-6.442182540893555, -5.306747913360596, 1.9269307851791382
-6.1435770988464355, -5.057176113128662, 2.1321513652801514
-3.759798288345337, -3.081744909286499, -0.7699705362319946
-3.774763822555542, -3.0918095111846924, -0.5991097688674927
-7.674134731292725, -6.283443927764893, 1.5709151029586792
-7.521782875061035, -6.156508445739746, 1.8893907070159912
-3.787161111831665, -3.0986521244049072, -0.2564462125301361
-6.441056251525879, -5.268190860748291, 1.9210820198059082
-3.8160853385925293, -3.1200947761535645, -0.08604036271572113
-6.147730827331543, -5.0246968269348145, 2.127492666244507
-3.7513415813446045, -3.0562498569488525, -1.1171070337295532
-3.7676401138305664, -3.0684359073638916, -0.9445045590400696
-3.9646995067596436, -3.227774143218994, 0.4472832679748535
-7.518850326538086, -6.110403537750244, 1.8832849264144897
-6.44428014755249, -5.2333903312683105, 1.9165831804275513
-6.160733222961426, -4.9995551109313965, 2.1259398460388184
-3.875619888305664, -3.1350560188293457, -1.15084969997406
-7.53402042388916, -6.079191207885742, 1.881758451461792
-6.432168483734131, -5.186399936676025, 1.9075851440429688
-3.85801362991333, -3.109692335128784, -0.08649412542581558
-6.152574062347412, -4.957413673400879, 2.1171398162841797
-7.550600528717041, -6.049170970916748, 1.8806136846542358
-6.45175313949585, -5.165134906768799, 1.9080349206924438
-6.157773971557617, -4.926252365112305, 2.1129987239837646
-7.747408866882324, -6.1802496910095215, 0.17298825085163116
-4.581182956695557, -3.6492631435394287, -0.9276564717292786
-7.562451362609863, -6.015444755554199, 1.8783239126205444
-6.471270561218262, -5.143793106079102, 1.9084848165512085
-10.83415699005127, -8.608619689941406, -0.2415413111448288
-6.1703925132751465, -4.901124477386475, 2.111445665359497
-7.710934638977051, -6.1072306632995605, 0.1716967672109604
-10.856236457824707, -8.592215538024902, 0.7255857586860657
-7.642197608947754, -6.046280860900879, 0.8525574803352356
-4.5629072189331055, -3.60874080657959, -0.9213991165161133
-7.644339084625244, -6.043638229370117, 1.1965134143829346
-4.653582572937012, -3.6778171062469482, -0.7282912731170654
-7.694277286529541, -6.078753471374512, 1.5530815124511719
-7.575698375701904, -5.982927322387695, 1.876415729522705
-6.41881799697876, -5.065639019012451, 1.8877893686294556
-10.904958724975586, -8.60295295715332, -0.2424488216638565
-6.184429168701172, -4.877163410186768, 2.110410451889038
-7.713342666625977, -6.065443992614746, 0.17127791047096252
-10.93327522277832, -8.591287612915039, 0.7287259101867676
-7.653854846954346, -6.012182235717773, 0.8515115976333618
-7.656020641326904, -6.00956392288208, 1.1950509548187256
-9.773187637329102, -7.6686692237854, -1.525316834449768
-7.689024925231934, -6.031134128570557, 1.5477627515792847
-7.607351303100586, -5.964926719665527, 1.8790870904922485
-10.972061157226562, -8.60010051727295, -0.7306100130081177
-6.407314777374268, -5.020367622375488, 1.8792411088943481
-10.982150077819824, -8.601826667785645, -0.24349597096443176
-6.193811893463135, -4.849588871002197, 2.1078224182128906
-7.725010871887207, -6.03109884262085, 0.1710684895515442
-11.016738891601562, -8.594841003417969, 0.7322847843170166
-7.644944190979004, -5.962149143218994, 0.8481996655464172
-7.664425373077393, -5.9730401039123535, 1.1931010484695435
-5.6156005859375, -4.374775409698486, -0.874047040939331
-7.675743579864502, -5.977555751800537, 1.5408796072006226
-7.631224155426025, -5.940747261047363, 1.8798502683639526
-11.011468887329102, -8.569109916687012, -0.731238067150116
-7.604552268981934, -5.915721416473389, 2.224316120147705
-11.08156681060791, -8.617451667785645, -0.24503178894519806
-7.008392810821533, -5.448032379150391, 2.378547191619873
-7.7302117347717285, -5.991846084594727, 0.1707194447517395
-11.117804527282715, -8.614532470703125, 0.7370996475219727
-7.643654823303223, -5.918349742889404, 0.8457593321800232
-7.669527530670166, -5.9341020584106445, 1.1906635761260986
-5.624556541442871, -4.3502888679504395, -0.87307208776474
-7.655023097991943, -5.916474342346191, 1.8806136846542358
-11.151947975158691, -8.616097450256348, -0.7385650873184204
-7.622071266174316, -5.886758327484131, 2.223416328430176
-11.15123176574707, -8.612436294555664, -0.24593931436538696
-7.0264201164245605, -5.4247612953186035, 2.378547191619873
-7.716764450073242, -5.9405622482299805, 0.16998644173145294
-11.201629638671875, -8.61707878112793, 0.7406585216522217
-7.648470878601074, -5.879489421844482, 0.8440161347389221
-5.998246669769287, -4.61093807220459, -1.198288083076477
-7.667126655578613, -5.891704559326172, 1.1872512102127075
-4.1205573081970215, -3.1641011238098145, 0.8228453993797302
-5.579012870788574, -4.282476425170898, -0.615319550037384
-7.676156520843506, -5.892253875732422, 1.880995273590088
-11.23116397857666, -8.617975234985352, -0.7419145703315735
-7.6260881423950195, -5.8495893478393555, 2.2189173698425293
-11.260570526123047, -8.634297370910645, -0.2476845532655716
-7.077511787414551, -5.4248809814453125, 2.3894174098968506
-7.721565246582031, -5.9014458656311035, 0.16963738203048706
-11.290451049804688, -8.625961303710938, 0.744636058807373
-7.6568403244018555, -5.845629692077637, 0.8427959680557251
-6.017444610595703, -4.592370510101318, -1.1989139318466187
-7.665551662445068, -5.84804630279541, 1.183838963508606
-5.6217041015625, -4.285694599151611, -0.6184571385383606
-7.6919941902160645, -5.861850738525391, 1.8798502683639526
-7.627854824066162, -5.808767318725586, 2.2135183811187744
-11.368685722351074, -8.657486915588379, -0.24942979216575623
-7.101612091064453, -5.406062126159668, 2.3914880752563477
-7.726758003234863, -5.864926815032959, 0.16932325065135956
-11.368231773376465, -8.62270736694336, 0.747776210308075
-7.659731864929199, -5.805630683898926, 0.8408786058425903
-7.672243595123291, -5.8130059242248535, 1.1818890571594238
-7.712954998016357, -5.837497234344482, 1.8802318572998047
-7.6237616539001465, -5.765807628631592, 2.2067699432373047
-11.398838996887207, -8.61774730682373, -0.24942979216575623
-7.12352180480957, -5.383569240570068, 2.3925232887268066
-7.737020015716553, -5.828146934509277, 0.16907891631126404
-11.476353645324707, -8.63863754272461, 0.752800464630127
-7.660846710205078, -5.764482021331787, 0.8387868404388428
-7.680804252624512, -5.775302410125732, 1.1799390316009521
-7.705231189727783, -5.789457321166992, 1.5264877080917358
-11.487747192382812, -8.631515502929688, -1.2571344375610352
-7.704473495483398, -5.786787033081055, 1.872981309890747
-7.627699851989746, -5.724956512451172, 2.2018210887908936
-11.494327545166016, -8.623916625976562, -0.25082600116729736
-7.123113632202148, -5.342357158660889, 2.385794162750244
-7.7397003173828125, -5.787930011749268, 0.16869495809078217
-11.554435729980469, -8.634391784667969, 0.7559406161308289
-3.775944232940674, -2.821685314178467, -0.9162648320198059
-7.658575057983398, -5.721012592315674, 0.8363465070724487
-7.681828022003174, -5.734206199645996, 1.1770141124725342
-7.7000579833984375, -5.743630409240723, 1.5214818716049194
-11.568910598754883, -8.629486083984375, -1.2627123594284058
-7.718330383300781, -5.755163669586182, 1.8714547157287598
-7.633572101593018, -5.687819004058838, 2.1977720260620117
-11.578887939453125, -8.624353408813477, -0.2520127594470978
-7.113828182220459, -5.296691417694092, 2.376476526260376
-7.737379550933838, -5.744190692901611, 0.16820628941059113
-11.651874542236328, -8.6439847946167, 0.7603368759155273
-3.822036027908325, -2.835391044616699, -0.9250420331954956
-7.662495136260986, -5.682376384735107, 0.8346033692359924
-6.1269989013671875, -4.542020797729492, -1.2079870700836182
-7.685848712921143, -5.695537567138672, 1.1745768785476685
-11.70615291595459, -8.665262222290039, -1.274216890335083
-7.708391189575195, -5.705993175506592, 1.864203929901123
-5.0316691398620605, -3.7232401371002197, -0.32804179191589355
-7.640846252441406, -5.651866912841797, 2.1941728591918945
-11.753633499145508, -8.690881729125977, -0.25515419244766235
-7.158683776855469, -5.291347980499268, 2.3852765560150146
-7.742896556854248, -5.706469535827637, 0.16789215803146362
-11.736655235290527, -8.64353084564209, 0.7638956904411316
-7.675246238708496, -5.648347854614258, 0.8337317705154419
-6.127692222595215, -4.5078277587890625, -1.2048583030700684
-7.678499698638916, -5.648676872253418, 1.1704332828521729
-11.774864196777344, -8.65265941619873, -1.2784004211425781
-7.71501350402832, -5.66724157333374, 1.860769510269165
-7.642660140991211, -5.609984397888184, 2.1887738704681396
-11.841931343078613, -8.692399024963379, -0.25641074776649475
-7.2144904136657715, -5.293757915496826, 2.3976998329162598
-7.7508440017700195, -5.668609142303467, 0.16761291027069092
-11.8151273727417, -8.637868881225586, 0.7670358419418335
-7.682044506072998, -5.61212158203125, 0.8323373198509216
-6.157747745513916, -4.4968953132629395, -1.2076741456985474
-7.6895318031311035, -5.613472938537598, 1.1689708232879639
-4.359391689300537, -3.1812565326690674, 0.8547580242156982
-11.875818252563477, -8.663171768188477, -1.2860701084136963
-7.720470905303955, -5.629864692687988, 1.857334852218628
-11.87559700012207, -8.656656265258789, -0.7701759934425354
-7.638570785522461, -5.566059112548828, 2.18202543258667
-11.891593933105469, -8.665143966674805, -0.2568296194076538
-7.253224849700928, -5.283329010009766, 2.4044291973114014
-7.759891510009766, -5.635824203491211, 0.1674034744501114
-11.945425987243652, -8.669305801391602, 0.7735255360603333
-7.680622100830078, -5.570063591003418, 0.8300712704658508
-6.18222188949585, -4.4834089279174805, -1.209551453590393
-7.687211036682129, -5.572795867919922, 1.165802240371704
-4.3352766036987305, -3.140523672103882, 0.8478748798370361
-11.931805610656738, -8.640361785888672, -1.2888591289520264
-7.724787712097168, -5.593869209289551, 1.8539003133773804
-11.985127449035645, -8.675789833068848, -0.7754096388816833
-7.641199111938477, -5.529273986816406, 2.1775262355804443
-12.022223472595215, -8.696246147155762, -0.2589937150478363
-7.257533073425293, -5.24778938293457, 2.3997702598571777
-7.755186557769775, -5.591161251068115, 0.16687990725040436
-12.030709266662598, -8.667251586914062, 0.7770843505859375
-7.673181533813477, -5.525936126708984, 0.8272823095321655
-6.210658550262451, -4.471034049987793, -1.2120543718338013
-7.696949481964111, -5.538973331451416, 1.1643399000167847
-4.399137020111084, -3.1634294986724854, 0.8581995368003845
-12.12367057800293, -8.714953422546387, -1.3062902688980103
-7.737267017364502, -5.559790134429932, 1.851992130279541
-12.07848834991455, -8.676078796386719, -0.7793871760368347
-7.654122829437256, -5.498020172119141, 2.175726890563965
-12.094738960266113, -8.684552192687988, -0.2599012553691864
-7.267961025238037, -5.21679162979126, 2.397181987762451
-7.751232147216797, -5.5452470779418945, 0.16635634005069733
-12.140388488769531, -8.678849220275879, 0.7821086049079895
-7.682036876678467, -5.48966646194458, 0.8260621428489685
-6.236648082733154, -4.455132007598877, -1.2139315605163574
-7.697813510894775, -5.496879577636719, 1.1614149808883667
-4.454117298126221, -3.178265333175659, 0.8666470646858215
-12.204193115234375, -8.705166816711426, -1.3115195035934448
-7.728818416595459, -5.51087760925293, 1.845123052597046
-7.650418758392334, -5.452962398529053, 2.168978214263916
-12.175345420837402, -8.67497444152832, -0.26094838976860046
-7.274444103240967, -5.181151866912842, 2.393040895462036
-7.761720657348633, -5.509854793548584, 0.1661469042301178
-12.222729682922363, -8.673407554626465, 0.7854580879211426
-7.687479019165039, -5.451098918914795, 0.8244932889938354
-6.269051551818848, -4.443665027618408, -1.2170602083206177
-7.698471546173096, -5.454858779907227, 1.1584900617599487
-4.49581241607666, -3.1843905448913574, 0.872591495513916
-12.28328800201416, -8.697052001953125, -1.3167489767074585
-7.731983184814453, -5.472525596618652, 1.8413069248199463
-5.341325283050537, -3.7790703773498535, -0.3429052233695984
-7.651907444000244, -5.413843631744385, 2.164029359817505
-12.31983757019043, -8.713250160217285, -0.26339173316955566
-7.286174774169922, -5.15126895904541, 2.390970468521118
-7.766873836517334, -5.474868297576904, 0.1658676713705063
-4.3138203620910645, -3.0396833419799805, -1.2183350324630737
-12.333060264587402, -8.690346717834473, 0.7906917333602905
-7.6892218589782715, -5.414107799530029, 0.8227502107620239
-6.44044303894043, -4.533138751983643, -1.2474086284637451
-7.693789482116699, -5.413308143615723, 1.1550778150558472
-4.525736331939697, -3.1831021308898926, 0.8763459920883179
-12.3772554397583, -8.702107429504395, -1.3237214088439941
-7.73723840713501, -5.437824249267578, 1.8382539749145508
-7.650684356689453, -5.374995708465576, 2.158630609512329
-12.348664283752441, -8.672348022460938, -0.26339173316955566
-7.284244060516357, -5.1137590408325195, 2.384758949279785
-7.7636895179748535, -5.434175491333008, 0.16541391611099243
-4.301523208618164, -3.0097203254699707, -1.212036371231079
-12.43205738067627, -8.69532299041748, 0.7950879335403442
-7.695703506469727, -5.380587577819824, 0.8215300440788269
-7.09661340713501, -4.959877014160156, -1.3713047504425049
-7.708443641662598, -5.3854899406433105, 1.1545902490615845
-7.706128120422363, -5.381871700286865, -1.1541028022766113
-4.557877063751221, -3.1819839477539062, 0.880413293838501
-7.727231025695801, -5.3946003913879395, -0.8244932889938354
-7.739128112792969, -5.400900363922119, 1.8344377279281616
-7.728346824645996, -5.391371250152588, -0.49384215474128723
-7.656612396240234, -5.339339256286621, 2.155031442642212
-7.289370059967041, -5.079464435577393, 2.38061785697937
-7.76454496383667, -5.394493103027344, 0.16502995789051056
-4.414440155029297, -3.065831184387207, -1.2408300638198853
-12.54600715637207, -8.709964752197266, 0.800426185131073
-7.681700706481934, -5.330974578857422, 0.8180438280105591
-7.058697700500488, -4.896793842315674, -1.360667109489441
-7.712513446807861, -5.3483686447143555, 1.152396559715271
-7.71018648147583, -5.344758987426758, -1.1519091129302979
-4.593310356140137, -3.182932138442993, 0.8851063251495361
-7.716536998748779, -5.347170352935791, -0.8213557004928589
-7.743409633636475, -5.363791465759277, 1.8310033082962036
-7.747120380401611, -5.364359378814697, -0.49384215474128723
-7.659179210662842, -5.301490783691406, 2.1505322456359863
-7.746932506561279, -5.360232353210449, -0.16443657875061035
-7.286402702331543, -5.039700984954834, 2.3738884925842285
-7.766867160797119, -5.356001853942871, 0.16468091309070587
-7.784648418426514, -5.366259574890137, 0.4955168664455414
-7.6920599937438965, -5.29847526550293, 0.8171722292900085
-7.711513996124268, -5.307908058166504, 1.1494717597961426
-7.769679546356201, -5.345945358276367, -1.1580026149749756
-4.641269683837891, -3.1934361457824707, 0.8923023343086243
-7.751570224761963, -5.331491947174072, -0.8230987787246704
-7.734583377838135, -5.3178205490112305, 1.824515700340271
-7.797070026397705, -5.358778953552246, -0.49583086371421814
-7.671213150024414, -5.270308494567871, 2.1487324237823486
-7.809167385101318, -5.365086555480957, -0.16537901759147644
-7.303075313568115, -5.015510559082031, 2.3738884925842285
-7.764785289764404, -5.316661357879639, 0.164262056350708
-7.846190452575684, -5.368375778198242, 0.49823835492134094
-7.697350025177002, -5.262596130371094, 0.8157777786254883
-7.706129550933838, -5.266624927520752, 1.1460593938827515
-4.685013771057129, -3.199495792388916, 0.8985596895217896
-7.799753189086914, -5.32462215423584, -0.8262364268302917
-7.737582683563232, -5.282179832458496, 1.8210811614990234
-7.666109561920166, -5.229465961456299, 2.1424338817596436
-7.318940162658691, -4.988900661468506, 2.37337064743042
-7.773374080657959, -5.282778739929199, 0.16405262053012848
-7.704868793487549, -5.230327606201172, 0.8147318959236145
-7.711323261260986, -5.230780124664307, 1.1441094875335693
-5.5073323249816895, -3.734354257583618, -0.8170121908187866
-4.722316265106201, -3.2008557319641113, 0.9035655856132507
-7.748763561248779, -5.248280048370361, 1.8191730976104736
-12.843807220458984, -8.695911407470703, -0.812882125377655
-7.660112380981445, -5.186286449432373, 2.135685443878174
-12.827872276306152, -8.68185806274414, -0.2703726887702942
-7.360311985015869, -4.979559898376465, 2.3811354637145996
-7.78936767578125, -5.252018451690674, 0.1639828234910965
-12.928104400634766, -8.7102689743042, 0.816964328289032
-7.709113121032715, -5.192037582397461, 0.8131631016731262
-7.717269420623779, -5.193613529205322, 1.1421595811843872
-4.752047538757324, -3.1956515312194824, 0.9070071578025818
-7.7597975730896, -5.214370250701904, 1.8172649145126343
-7.674217224121094, -5.154916286468506, 2.13433575630188
-12.992420196533203, -8.723962783813477, -0.2731650769710541
-7.410593032836914, -4.974084377288818, 2.3914880752563477
-7.7852959632873535, -5.2078657150268555, 0.16349413990974426
-13.011556625366211, -8.700617790222168, 0.8203138709068298
-7.703243255615234, -5.147141933441162, 0.8105483651161194
-7.7213945388793945, -5.155372619628906, 1.1399658918380737
-4.802606582641602, -3.2053627967834473, 0.9145159721374512
-7.756720066070557, -5.173088550567627, 1.812303900718689
-5.623603343963623, -3.749058961868286, -0.3542097806930542
-7.675950050354004, -5.117286205291748, 2.1298367977142334
-7.437558174133301, -4.954610347747803, 2.3945939540863037
-4.4861159324646, -2.9805686473846436, -1.4431750774383545
-7.7758708000183105, -5.164318561553955, 0.16293567419052124
-13.1168794631958, -8.708236694335938, 0.8251287937164307
-7.703667163848877, -5.1105546951293945, 0.8088052868843079
-7.281525611877441, -4.828681468963623, -1.3838194608688354
-7.7202467918396, -5.117676258087158, 1.1372848749160767
-4.829676628112793, -3.2003304958343506, 0.9176446795463562
-7.750914096832275, -5.132165431976318, 1.8069612979888916
-7.686376571655273, -5.087501049041748, 2.1280369758605957
-18.581626892089844, -12.294252395629883, -0.3889094293117523
-5.918363094329834, -3.9143083095550537, 1.9012846946716309
-7.781266689300537, -5.130800247192383, 0.16269133985042572
-18.644237518310547, -12.28427505493164, 1.170127511024475
-7.70892333984375, -5.077309608459473, 0.8075851202011108
-7.310696601867676, -4.813197612762451, -1.3863223791122437
-7.718935012817383, -5.080041885375977, 1.13460373878479
-11.970285415649414, -7.874974250793457, -1.7593059539794922
-4.863924026489258, -3.198648691177368, 0.9220247864723206
-7.746562957763672, -5.092413902282715, 1.8020001649856567
-7.678027629852295, -5.043522834777832, 2.1208386421203613
-18.708005905151367, -12.284193992614746, -0.39065465331077576
-5.938451290130615, -3.8978660106658936, 1.903355360031128
-4.549940586090088, -2.978532075881958, -1.4571512937545776
-7.784069538116455, -5.093752861022949, 0.16237719357013702
-18.80401611328125, -12.295631408691406, 1.1774544715881348
-7.714925289154053, -5.042738914489746, 0.8063649535179138
-7.3770647048950195, -4.820064067840576, -1.3957085609436035
-7.723324775695801, -5.044382572174072, 1.132653832435608
-7.765026092529297, -5.067752838134766, 1.468606948852539
-7.757715702056885, -5.061051368713379, 1.8004738092422485
-7.9164042472839355, -5.162609100341797, -0.4953075647354126
-7.67599630355835, -5.003920078277588, 2.1154398918151855
-5.974681854248047, -3.891876220703125, 1.910602331161499
-4.584609031677246, -2.978419065475464, -1.4649158716201782
-7.79844856262207, -5.0643720626831055, 0.16230738162994385
-18.960750579833984, -12.303849220275879, 1.1845721006393433
-7.715765953063965, -5.004934787750244, 0.8046218156814575
-7.413733959197998, -4.807179927825928, -1.3994628190994263
-7.73255729675293, -5.011993408203125, 1.1314350366592407
-7.754482269287109, -5.022361755371094, 1.4632880687713623
-7.763798713684082, -5.026473045349121, 1.7978025674819946
-7.827064514160156, -5.065494060516357, -0.48860853910446167
-7.670510292053223, -4.962276458740234, 2.1091411113739014
-5.976874351501465, -3.8636555671691895, 1.9069788455963135
-4.6214776039123535, -2.9783387184143066, -1.4731980562210083
-7.79254674911499, -5.021953105926514, 0.1618187129497528
-19.137920379638672, -12.324094772338867, 1.1929458379745483
-7.71060037612915, -4.961529731750488, 0.8021814227104187
-7.741657257080078, -4.9796013832092285, 1.130216360092163
-7.768642902374268, -4.993126392364502, 1.4626624584197998
-14.318453788757324, -9.199344635009766, -1.4889687299728394
-7.765651226043701, -4.9873738288879395, 1.7939863204956055
-7.842216491699219, -5.034613609313965, -0.4883992075920105
-7.678805351257324, -4.927813529968262, 2.1064417362213135
-5.969186305999756, -3.8292083740234375, 1.9002496004104614
-4.669277191162109, -2.986128568649292, -1.485103726387024
-7.787313938140869, -4.9782795906066895, 0.16133004426956177
-19.270483016967773, -12.309782028198242, 1.1983888149261475
-7.717797756195068, -4.928149223327637, 0.8011355400085449
-8.030725479125977, -5.125993728637695, -1.5089670419692993
-7.738100528717041, -4.937314033508301, 1.1270477771759033
-7.770236015319824, -4.953999996185303, 1.4595338106155396
-14.352073669433594, -9.146806716918945, -1.4889687299728394
-7.76148796081543, -4.946520805358887, 1.7890251874923706
-7.802471160888672, -4.970722675323486, -0.48484036326408386
-7.682810306549072, -4.892605304718018, 2.1028425693511963
-19.47021484375, -12.394336700439453, -0.40287137031555176
-6.066303253173828, -3.8601980209350586, 1.9266489744186401
-4.709554672241211, -2.9876205921173096, -1.4944212436676025
-7.78944730758667, -4.941425323486328, 0.16101591289043427
-19.4988956451416, -12.360063552856445, 1.2099027633666992
-7.7223429679870605, -4.89130163192749, 0.7997410893440247
-7.728453636169434, -4.893280506134033, 1.123147964477539
-7.774124622344971, -4.918399333953857, 1.4570307731628418
-7.766292095184326, -4.909646034240723, 1.7859723567962646
-7.758164882659912, -4.902616024017334, -0.4809674918651581
-7.684216022491455, -4.854006290435791, 2.0983433723449707
-19.51335906982422, -12.326301574707031, -0.40287137031555176
-7.473083019256592, -4.718812465667725, 2.368194341659546
-4.751607418060303, -2.993406057357788, -1.5047739744186401
-7.800714015960693, -4.912370681762695, 0.1609111875295639
-19.635665893554688, -12.360455513000488, 1.2159737348556519
-7.730926036834717, -4.862771511077881, 0.7990438342094421
-7.73455286026001, -4.861288547515869, 1.12168550491333
-7.772812843322754, -4.883440971374512, 1.4539021253585815
-14.243697166442871, -8.945454597473145, -1.4715375900268555
-7.7766876220703125, -4.8820929527282715, 1.7848273515701294
-7.751537799835205, -4.864416122436523, -0.4796067476272583
-7.689520359039307, -4.823629856109619, 2.095643997192383
-7.484597682952881, -4.693259239196777, 2.367159128189087
-4.784961223602295, -2.991137742996216, -1.5120209455490112
-7.806786060333252, -4.880116939544678, 0.16070175170898438
-19.76000213623047, -12.34262752532959, 1.2209980487823486
-7.736020088195801, -4.828372955322266, 0.7978236675262451
-7.7422099113464355, -4.830358982086182, 1.1204668283462524
-7.762989521026611, -4.839559555053711, 1.4488961696624756
-14.274835586547852, -8.895679473876953, -1.4715375900268555
-7.781171798706055, -4.849009037017822, 1.7821561098098755
-7.771016597747803, -4.840795040130615, -0.4798160791397095
-7.688932418823242, -4.787802696228027, 2.0911450386047363
-19.934213638305664, -12.407960891723633, -0.4098523259162903
-7.492733001708984, -4.66200065612793, 2.3645708560943604
-7.803380966186523, -4.840187072753906, 0.1602828949689865
-19.96933364868164, -12.376688003540039, 1.2312557697296143
-7.721503257751465, -4.7838053703308105, 0.7946860194206238
-7.7472100257873535, -4.795989990234375, 1.1187607049942017
-7.766396522521973, -4.804118633270264, 1.4463932514190674
-14.348313331604004, -8.875544548034668, -1.476069688796997
-7.784693241119385, -4.81355619430542, 1.77910315990448
-7.77767276763916, -4.807339191436768, -0.47918805480003357
-7.702282905578613, -4.758885860443115, 2.090245485305786
-7.505672931671143, -4.633788108825684, 2.3635354042053223
-7.804902076721191, -4.803485870361328, 0.159968763589859
-20.151920318603516, -12.39269733428955, 1.2398388385772705
-7.722879409790039, -4.747432231903076, 0.7931172251701355
-7.7469892501831055, -4.758528232574463, 1.1163233518600464
-10.014647483825684, -6.149013519287109, -1.4429330825805664
-7.7780680656433105, -4.773879528045654, 1.445454716682434
-14.402979850769043, -8.839996337890625, -1.4785100221633911
-7.776347637176514, -4.7709527015686035, 1.7733789682388306
-7.775677680969238, -4.768677234649658, -0.47803670167922974
-7.708879470825195, -4.725859642028809, 2.087545871734619
-20.361358642578125, -12.47745418548584, -0.4168332815170288
-7.554749011993408, -4.627744197845459, 2.3738884925842285
-7.809675693511963, -4.768917560577393, 0.1597244292497635
-20.338272094726562, -12.409664154052734, 1.2486313581466675
-7.7377028465271, -4.719407558441162, 0.7929429411888123
-7.739820957183838, -4.71699333190918, 1.1129108667373657
-9.981803894042969, -6.08096981048584, -1.4351335763931274
-7.781188011169434, -4.738478660583496, 1.4429515600204468
-14.535852432250977, -8.851839065551758, -1.4889687299728394
-7.776182174682617, -4.733572006225586, 1.7695627212524414
-7.782038688659668, -4.735276222229004, -0.47740864753723145
-7.702020645141602, -4.684741497039795, 2.081247329711914
-6.454873561859131, -3.9230828285217285, 2.0239648818969727
-7.821142673492432, -4.73852014541626, 0.15961971879005432
-20.518152236938477, -12.421339988708496, 1.2570050954818726
-7.742197036743164, -4.685151100158691, 0.7917227745056152
-7.749444484710693, -4.685839653015137, 1.1119359731674194
-9.97238826751709, -6.0276079177856445, -1.4307461977005005
-7.779082775115967, -4.7000532150268555, 1.4395101070404053
-14.522323608398438, -8.774260520935059, -1.4844366312026978
-7.779214859008789, -4.698280334472656, 1.766509771347046
-7.783130645751953, -4.698794364929199, -0.476466566324234
-7.696635723114014, -4.644740104675293, 2.0753986835479736
-6.4586029052734375, -3.8945400714874268, 2.0208592414855957
-7.817069053649902, -4.698827743530273, 0.15920086205005646
-5.001166820526123, -3.0050039291381836, -1.3470070362091064
-20.68123435974121, -12.42163372039795, 1.2643321752548218
-7.738006591796875, -4.645787239074707, 0.7896310091018677
-7.753837585449219, -4.651613235473633, 1.1102298498153687
-9.993369102478027, -5.992758750915527, -1.4307461977005005
-7.776804447174072, -4.661698341369629, 1.4360685348510742
-7.792199611663818, -4.669078350067139, 1.7657465934753418
-7.797773838043213, -4.67056941986084, -0.4763619005680084
-7.69775390625, -4.6088361740112305, 2.0713493824005127
-20.830642700195312, -12.466883659362793, -0.42374441027641296
-6.482104301452637, -3.8779237270355225, 2.0239648818969727
-5.003657341003418, -2.98514723777771, -1.5611964464187622
-7.8248372077941895, -4.666388988494873, 0.15902632474899292
-4.978147506713867, -2.9675726890563965, -1.338008999824524
-20.87545394897461, -12.439335823059082, 1.273543357849121
-7.733635425567627, -4.606513500213623, 0.7875392436981201
-7.7700276374816895, -4.624518871307373, 1.1102298498153687
-9.983518600463867, -5.939568996429443, -1.426358938217163
-7.784539699554443, -4.629475116729736, 1.4345041513442993
-7.791573524475098, -4.631817817687988, 1.7619303464889526
-7.8020100593566895, -4.636178970336914, -0.47562921047210693
-7.713795185089111, -4.581937789916992, 2.0713493824005127
-7.621948719024658, -4.523783206939697, 2.3749237060546875
-5.097171306610107, -3.0168616771698, -1.5870784521102905
-7.816982269287109, -4.624793529510498, 0.15853767096996307
-21.021909713745117, -12.4273681640625, 1.2798235416412354
-7.742806434631348, -4.575437545776367, 0.7868420481681824
-9.966581344604492, -5.882485866546631, -1.4209966659545898
-7.792145252227783, -4.597256660461426, 1.432939887046814
-7.784019947052002, -4.590629577636719, 1.7565877437591553
-7.8009419441223145, -4.598773956298828, -0.4745825231075287
-7.724704265594482, -4.5520172119140625, 2.0699996948242188
-7.632699012756348, -4.4942097663879395, 2.37337064743042
-5.190966606140137, -3.0479588508605957, -1.6129603385925293
-7.824455261230469, -4.5924177169799805, 0.15836313366889954
-21.309804916381836, -12.497385025024414, 1.294687032699585
-7.743261337280273, -4.539313316345215, 0.7852731943130493
-5.590808391571045, -3.274862766265869, 0.7955631613731384
-9.987052917480469, -5.847661972045898, -1.4209966659545898
-7.801327228546143, -4.566035747528076, 1.4316884279251099
-15.009672164916992, -8.785005569458008, -1.5215648412704468
-7.793219089508057, -4.559464454650879, 1.7550612688064575
-7.787635803222656, -4.554376125335693, -0.4728030860424042
-7.718677520751953, -4.512237548828125, 2.0641510486602783
-21.39168357849121, -12.500288963317871, -0.4324706196784973
-7.833525657653809, -4.561051845550537, 0.15822350978851318
-4.941581726074219, -2.876068115234375, -1.3200129270553589
-21.475418090820312, -12.498987197875977, 1.3022234439849854
